8.961038961038960693e+00 1.471759776536312927e+02 1.502901251622223544e+00
8.961038961038960693e+00 1.568687150837988895e+02 1.307504820958000469e+00
8.961038961038960693e+00 1.665614525139664863e+02 1.008860803399804995e+00
8.961038961038960693e+00 1.762541899441340831e+02 8.934809158886751479e-02
8.961038961038960693e+00 1.859469273743016799e+02 3.644050706541020201e-02
8.961038961038960693e+00 1.956396648044692768e+02 7.844017265100184932e-01
8.961038961038960693e+00 2.053324022346369020e+02 1.329423036300720451e+00
8.961038961038960693e+00 2.150251396648044704e+02 1.631121438492242115e+00
8.961038961038960693e+00 2.247178770949720672e+02 2.320372901606882365e+00
8.961038961038960693e+00 2.344106145251396640e+02 3.088622408206129322e+00
8.961038961038960693e+00 2.441033519553072892e+02 2.041750420734296689e+00
8.961038961038960693e+00 2.537960893854748292e+02 1.018053504670873188e+00
8.961038961038960693e+00 2.634888268156424260e+02 1.263829532905473618e+00
8.961038961038960693e+00 2.731815642458100797e+02 7.708107099437436771e-01
8.961038961038960693e+00 2.828743016759776765e+02 6.000629861142431354e-01
8.961038961038960693e+00 2.925670391061452165e+02 1.270407984352632358e+00
8.961038961038960693e+00 3.022597765363128701e+02 8.499861988875762053e-01
8.961038961038960693e+00 3.119525139664804669e+02 4.820262574749286655e-01
8.961038961038960693e+00 3.216452513966480637e+02 1.449811654170180431e+00
8.961038961038960693e+00 3.313379888268156037e+02 2.129929621947833418e+00
8.961038961038960693e+00 3.410307262569832574e+02 1.274971121960792653e+00
8.961038961038960693e+00 3.507234636871508542e+02 7.992459397568477675e-01
8.961038961038960693e+00 3.604162011173184510e+02 1.435364422335816625e+00
8.961038961038960693e+00 3.701089385474860478e+02 1.943448791699017519e+00
8.961038961038960693e+00 3.798016759776536446e+02 2.695070889222862309e+00
8.961038961038960693e+00 3.894944134078212414e+02 2.017931714390417852e+00
8.961038961038960693e+00 3.991871508379887814e+02 1.528636201033976849e-01
8.961038961038960693e+00 4.088798882681563782e+02 7.780800673365700915e-02
8.961038961038960693e+00 4.185726256983240319e+02 9.744714496045381313e-01
8.961038961038960693e+00 4.282653631284916287e+02 1.259116809996033926e+00
8.961038961038960693e+00 4.379581005586592255e+02 4.318692421190695740e-01
8.961038961038960693e+00 4.476508379888268223e+02 8.091555311522377614e-02
8.961038961038960693e+00 4.573435754189944191e+02 1.644475303835833957e+00
8.961038961038960693e+00 4.670363128491620159e+02 6.670010788554612269e+00
1.792207792207792139e+01 4.670363128491620159e+02 4.415820160636757308e+00
2.688311688311688386e+01 4.670363128491620159e+02 4.573751652006387003e-01
3.584415584415584277e+01 4.670363128491620159e+02 7.367497833837568198e-03
4.480519480519480169e+01 4.670363128491620159e+02 8.129572978725955190e-01
5.376623376623376771e+01 4.670363128491620159e+02 5.831166952481132704e+00
6.272727272727272663e+01 4.670363128491620159e+02 1.000011776358871352e+01
7.168831168831168554e+01 4.670363128491620159e+02 6.038302486953710080e+00
8.064935064935065157e+01 4.670363128491620159e+02 2.299281581879707659e+00
8.961038961038960338e+01 4.670363128491620159e+02 5.439010864339230422e-02
9.857142857142856940e+01 4.670363128491620159e+02 4.766341863520208005e-05
1.075324675324675354e+02 4.670363128491620159e+02 4.416827282169780503e-03
1.164935064935064872e+02 4.670363128491620159e+02 6.019041594807260642e-01
1.254545454545454533e+02 4.670363128491620159e+02 4.140620284711341803e+00
1.344155844155844193e+02 4.670363128491620159e+02 5.608695068501313941e+00
1.433766233766233711e+02 4.670363128491620159e+02 5.285813245867785781e+00
1.523376623376623513e+02 4.670363128491620159e+02 3.224990055259910893e+00
1.612987012987013031e+02 4.670363128491620159e+02 9.291584586714125571e-01
1.702597402597402834e+02 4.670363128491620159e+02 4.986048704119747654e+00
1.792207792207792068e+02 4.670363128491620159e+02 8.269412442791647777e+00
1.881818181818181586e+02 4.670363128491620159e+02 6.289572715836574623e+00
1.971428571428571388e+02 4.670363128491620159e+02 3.262061133546221292e+00
2.061038961038960906e+02 4.670363128491620159e+02 2.318358902994753112e+00
2.150649350649350708e+02 4.670363128491620159e+02 7.134931005882345190e+00
2.240259740259740227e+02 4.670363128491620159e+02 7.398519299401547400e+00
2.329870129870129745e+02 4.670363128491620159e+02 2.194388390291072355e+00
2.419480519480519547e+02 4.670363128491620159e+02 4.610174778612268653e+00
2.509090909090909065e+02 4.670363128491620159e+02 6.597942501469668208e+00
2.598701298701298583e+02 4.670363128491620159e+02 7.422015764085028167e+00
2.688311688311688386e+02 4.670363128491620159e+02 9.166383171633302851e+00
2.688311688311688386e+02 4.573435754189944191e+02 1.706298848231624143e+00
2.688311688311688386e+02 4.476508379888268223e+02 8.048282759295599664e-02
2.688311688311688386e+02 4.379581005586592255e+02 1.194244603989572440e+00
2.688311688311688386e+02 4.282653631284916287e+02 3.267236057864870702e+00
2.688311688311688386e+02 4.185726256983240319e+02 4.564554366567083576e+00
2.688311688311688386e+02 4.088798882681563782e+02 2.759726984489299983e+00
2.688311688311688386e+02 3.991871508379887814e+02 8.385138487532103335e-01
2.688311688311688386e+02 3.894944134078212414e+02 3.120165357014538010e+00
2.688311688311688386e+02 3.798016759776536446e+02 3.521207266415743664e+00
2.688311688311688386e+02 3.701089385474860478e+02 7.828519653684152813e-01
2.688311688311688386e+02 3.604162011173184510e+02 2.152062152800424122e-02
2.688311688311688386e+02 3.507234636871508542e+02 8.913152492758832368e-01
2.688311688311688386e+02 3.410307262569832574e+02 2.953198265788536947e+00
2.688311688311688386e+02 3.313379888268156037e+02 4.365232297845797582e+00
2.688311688311688386e+02 3.216452513966480637e+02 3.336663311131144116e+00
2.688311688311688386e+02 3.119525139664804669e+02 1.893792235849669270e+00
2.688311688311688386e+02 3.022597765363128701e+02 2.489721978549842341e+00
2.688311688311688386e+02 2.925670391061452165e+02 2.833530818295406206e+00
2.688311688311688386e+02 2.828743016759776765e+02 1.311104768131120757e+00
2.688311688311688386e+02 2.731815642458100797e+02 1.930983521112902279e+00
2.688311688311688386e+02 2.634888268156424260e+02 2.833731699941050231e+00
2.688311688311688386e+02 2.537960893854748292e+02 1.243659852004521893e+00
2.688311688311688386e+02 2.441033519553072892e+02 3.358658283122457205e-02
2.688311688311688386e+02 2.344106145251396640e+02 4.659412694745803662e-01
2.688311688311688386e+02 2.247178770949720672e+02 3.252271207595740066e+00
2.688311688311688386e+02 2.150251396648044704e+02 4.740012328776318284e+00
2.688311688311688386e+02 2.053324022346369020e+02 3.542785825578445902e+00
2.688311688311688386e+02 1.956396648044692768e+02 1.817087533298712421e+00
2.688311688311688386e+02 1.859469273743016799e+02 9.054685986774586859e-02
2.688311688311688386e+02 1.762541899441340831e+02 1.994067983751177109e-01
2.688311688311688386e+02 1.665614525139664863e+02 2.251075618478739937e+00
2.688311688311688386e+02 1.568687150837988895e+02 2.830664069936855931e+00
2.688311688311688386e+02 1.471759776536312927e+02 1.960004389973776462e+00
2.598701298701298583e+02 1.374832402234636675e+02 3.726788527740428236e+00
2.688311688311688386e+02 1.374832402234636675e+02 4.718218723675237314e+00
1.881818181818181586e+02 1.277905027932960991e+02 8.015438698260952677e-01
1.792207792207792068e+02 1.277905027932960991e+02 1.703796214638923612e+00
8.961038961038960693e+00 1.374832402234636675e+02 3.287877215130437847e+00
1.792207792207792139e+01 1.374832402234636675e+02 3.478438420326915193e+00
2.688311688311688386e+01 1.374832402234636675e+02 4.532703797843324334e-01
3.584415584415584277e+01 1.374832402234636675e+02 2.523726901661374044e-03
4.480519480519480169e+01 1.374832402234636675e+02 2.323369038789970410e-03
5.376623376623376771e+01 1.374832402234636675e+02 3.102713482686931812e-01
6.272727272727272663e+01 1.374832402234636675e+02 1.707999686910729453e+00
7.168831168831168554e+01 1.374832402234636675e+02 2.582744566712097622e+00
8.064935064935065157e+01 1.374832402234636675e+02 2.100587576652543920e+00
8.961038961038960338e+01 1.374832402234636675e+02 1.293853466952871845e+00
9.857142857142856940e+01 1.374832402234636675e+02 8.178983725482534550e-02
1.075324675324675354e+02 1.374832402234636675e+02 5.468859170983276369e-02
1.164935064935064872e+02 1.374832402234636675e+02 1.149214991190431689e+00
1.254545454545454533e+02 1.374832402234636675e+02 1.766429697135355248e+00
1.344155844155844193e+02 1.374832402234636675e+02 1.010052842509568949e+00
1.433766233766233711e+02 1.374832402234636675e+02 3.674719925610239052e-02
1.523376623376623513e+02 1.374832402234636675e+02 3.774151998351365882e-04
1.612987012987013031e+02 1.374832402234636675e+02 8.261600084657870491e-02
1.702597402597402834e+02 1.374832402234636675e+02 9.138400952854437431e-01
1.792207792207792068e+02 1.374832402234636675e+02 4.256030451131096015e+00
1.881818181818181586e+02 1.374832402234636675e+02 3.398618848454751262e+00
1.971428571428571388e+02 1.374832402234636675e+02 4.046113212231065681e+00
2.061038961038960906e+02 1.374832402234636675e+02 6.638059223777990958e+00
2.150649350649350708e+02 1.374832402234636675e+02 6.830057876792651861e+00
2.240259740259740227e+02 1.374832402234636675e+02 6.959221224606296552e+00
2.329870129870129745e+02 1.374832402234636675e+02 9.728076416066874899e+00
2.419480519480519547e+02 1.374832402234636675e+02 5.892716091321171135e+00
2.509090909090909065e+02 1.374832402234636675e+02 3.492930485705460164e+00
1.792207792207792068e+02 1.180977653631284880e+02 3.940539056809598817e-01
1.881818181818181586e+02 1.180977653631284880e+02 2.752949698996122740e-01
1.881818181818181586e+02 1.084050279329609054e+02 7.387169870347963796e-01
1.792207792207792068e+02 1.084050279329609054e+02 6.793621874315114786e-03
1.792207792207792068e+02 9.871229050279329442e+01 2.211061010939217863e-02
1.881818181818181586e+02 9.871229050279329442e+01 8.063254844750401551e-01
1.881818181818181586e+02 8.901955307262571182e+01 4.518860663798319743e-01
1.792207792207792068e+02 8.901955307262571182e+01 8.546244844074135649e-01
1.792207792207792068e+02 7.932681564245810080e+01 2.134846131436151762e+00
1.881818181818181586e+02 7.932681564245810080e+01 8.525674159575535871e-01
1.881818181818181586e+02 6.963407821229050398e+01 7.282978503612977939e-01
1.792207792207792068e+02 6.963407821229050398e+01 2.508016390441254906e+00
1.792207792207792068e+02 5.994134078212290717e+01 1.671792921470474536e+00
1.881818181818181586e+02 5.994134078212290717e+01 6.615350198051562769e-01
1.881818181818181586e+02 5.024860335195530325e+01 8.561478524706405135e-01
1.792207792207792068e+02 5.024860335195530325e+01 1.807880737698369433e+00
1.792207792207792068e+02 4.055586592178770644e+01 1.829497937743911118e+00
1.881818181818181586e+02 4.055586592178770644e+01 3.627387534399030278e-01
1.881818181818181586e+02 3.086312849162010963e+01 3.782052858581952393e-02
1.792207792207792068e+02 3.086312849162010963e+01 2.795834545888429279e+00
1.792207792207792068e+02 2.117039106145251637e+01 6.355954854574012103e+00
1.881818181818181586e+02 2.117039106145251637e+01 2.481680718869671842e-01
1.881818181818181586e+02 1.147765363128491600e+01 3.207747061167246727e+00
1.792207792207792068e+02 1.147765363128491600e+01 4.878340352120162926e+00
2.180649350649350708e+02 4.797290502793295559e+02 7.387908166038420710e+00
2.180649350649350708e+02 4.894217877094971527e+02 5.827516156809823933e+00
